ply
format ascii 1.0
comment Created by CloudCompare v2.11.1 (Anoia)
comment Created 01.09.2021 13:59
obj_info Generated by CloudCompare!
element vertex 677
property float x
property float y
property float z
property uchar red
property uchar green
property uchar blue
property float nx
property float ny
property float nz
end_header
0.00639535 -0.0219061 0.00487915 115 33 16 -0.942525 -0.0856841 0.322963 
-0.0179874 -0.112387 0.0275349 129 42 20 -0.0120202 -0.877475 0.479472 
0.0317281 -0.0354992 0.0171171 110 30 7 0.0550636 0.0114283 0.998417 
0.00728316 -0.0207804 0.00778422 117 36 21 -0.676556 -0.617006 0.401964 
0.0076619 -0.0275828 0.00722825 124 37 17 -0.905626 -0.0304969 0.422979 
-0.014891 -0.107925 0.0302517 109 30 7 -0.0616977 -0.0487087 0.996906 
-0.00971694 -0.110035 0.0299045 110 32 8 0.0117554 -0.419278 0.907782 
0.0371417 -0.030183 0.0161742 14 11 9 -0.199685 0.0151808 0.979742 
-0.0215914 -0.110034 0.0298218 111 35 12 -0.011352 -0.341822 0.939696 
0.00737574 -0.0253432 0.00676734 124 37 16 -0.908131 -0.060722 0.414259 
-0.00995806 -0.1088 0.0302648 111 36 13 -0.00350595 -0.218537 0.975822 
0.00860217 -0.02715 0.00896121 120 34 12 -0.836546 -0.0289415 0.547132 
0.00810841 -0.0268606 0.00812853 122 37 14 -0.877716 -0.0229204 0.478632 
0.0316272 -0.0333687 0.0170894 109 28 5 0.0658246 0.00522418 0.997818 
-0.0102463 -0.107997 0.0304434 109 32 12 -0.00830507 -0.236101 0.971693 
0.00823124 -0.0254414 0.00846337 121 35 14 -0.877366 -0.0451686 0.477692 
-0.0208438 -0.107237 0.030094 104 24 2 -0.0228817 0.099154 0.994809 
0.0092771 -0.0262146 0.00999927 117 33 10 -0.801766 -0.0436814 0.59604 
-0.0183172 -0.107386 0.0301508 106 25 4 -0.0199023 0.055517 0.998259 
-0.0192948 -0.105344 0.0297212 110 33 10 -0.0286122 0.289854 0.956643 
-0.00724472 -0.110801 0.029448 113 30 7 0.00689512 -0.630214 0.776391 
0.0103046 -0.0276963 0.0111373 115 32 10 -0.741079 -0.0295307 0.670768 
-0.0174264 -0.1079 0.0301863 110 30 8 -0.0231091 -0.00502372 0.99972 
0.0316174 -0.0289403 0.0170114 108 28 4 0.0625578 0.0243869 0.997743 
0.0318595 -0.0266373 0.0169158 108 28 5 0.0881417 0.0293806 0.995675 
0.0349284 -0.0275649 0.0163964 107 31 8 0.387643 0.0999926 0.91637 
0.0387734 -0.0364566 0.016177 12 12 10 0.108483 0.02082 0.99388 
0.0389444 -0.0357681 0.01615 13 14 12 0.176201 0.0361736 0.983689 
-0.0889786 0.0327003 -0.00868514 8 10 8 -0.0909623 -0.883034 -0.460409 
-0.0882332 0.0334173 -0.0100052 8 12 10 -0.244301 -0.831239 -0.499358 
-0.00595015 0.0546434 0.0209653 12 13 11 -0.768844 0.263649 0.582553 
-0.0120692 0.0390544 -0.0217472 10 12 10 0.268838 -0.303714 -0.914048 
-0.0896652 0.0338115 -0.00963418 9 10 9 -0.657803 -0.563591 -0.499661 
-0.0916012 0.0336254 -0.00706725 5 7 5 -0.629833 -0.653099 -0.420443 
-0.0906026 0.0333665 -0.0080541 7 8 5 -0.586267 -0.582888 -0.562613 
-0.0903877 0.0333432 -0.00823919 6 7 5 -0.565973 -0.593004 -0.572731 
-0.0113936 0.054961 0.0205481 13 14 12 0.817585 0.209363 0.536397 
-0.0234646 0.0471823 -0.0261214 85 25 6 -0.102839 0.0342796 -0.994107 
-0.0589115 0.0250491 0.00111698 10 10 8 -0.00306764 -0.999028 0.0439695 
-0.0203489 0.0444036 -0.0262708 101 32 5 0.0431396 -0.0962345 -0.994423 
-0.0181807 0.0458287 -0.026376 8 9 8 -0.030446 -0.0472438 -0.998419 
-0.0872706 0.0371379 -0.0138379 39 42 38 -0.313124 0.352453 -0.88189 
-0.052904 0.0289647 -0.0108989 19 19 17 -0.0181253 -0.751502 -0.659482 
-0.0509874 0.0273877 -0.00820185 7 7 5 0.0646275 -0.959274 -0.274984 
-0.00482971 0.0582155 0.020458 12 14 12 -0.522054 0.455761 0.720931 
-0.0491319 0.0279661 -0.00956643 13 14 12 -0.175067 -0.774861 -0.607406 
-0.0402364 0.0390682 0.0239067 10 12 10 -0.0365073 -0.30087 0.952966 
-0.0881394 0.0406886 -0.0154072 17 21 19 -0.570215 -0.414852 -0.70905 
-0.0427953 0.0408732 0.0243682 11 13 10 -0.0205206 -0.24504 0.969296 
-0.052006 0.0266437 -0.00654904 5 5 4 0.162369 -0.951402 -0.261669 
-0.017018 0.0419164 -0.0261184 6 5 4 -0.0444473 -0.131063 -0.990377 
-0.0398804 0.0379605 0.0235867 12 14 11 -0.0687506 -0.310026 0.948239 
-0.0549852 0.0260456 -0.00466105 8 8 7 -0.0753133 -0.958649 -0.274447 
-0.0143081 0.0413732 -0.0248691 16 19 17 0.767968 -0.0950818 -0.633391 
-0.0149982 0.043099 -0.0258862 23 26 23 0.554365 -0.156896 -0.817352 
-0.0517826 0.0262361 -0.00502434 11 11 10 0.189942 -0.952402 -0.238437 
-0.0370011 0.0389422 0.0240126 10 12 9 -0.0263413 -0.304807 0.95205 
-0.0506368 0.0257785 -0.00340053 11 11 10 0.0036611 -0.957988 -0.286786 
-0.0128313 0.0439349 -0.0232109 19 22 19 0.8042 -0.0941856 -0.586849 
-0.0444183 0.023043 -0.00703314 7 7 7 -0.144099 -0.934584 -0.325252 
-0.0392302 0.041439 0.0246369 9 10 8 -0.0483592 -0.254196 0.965943 
-0.0910187 0.0399485 -0.0129625 21 24 22 -0.539707 -0.354942 -0.763369 
-0.0910093 0.0422048 -0.0138446 19 23 20 -0.555289 -0.280017 -0.783099 
-0.0395311 0.0221666 -0.00557382 7 8 7 -0.0752958 -0.983626 -0.163738 
-0.0348174 0.0395914 0.0243367 9 10 9 -0.0444001 -0.300652 0.9527 
-0.032935 0.0396484 0.0244516 9 10 8 0.00364304 -0.278086 0.960549 
-0.0327308 0.039773 0.0244755 9 10 8 0.028035 -0.254753 0.9666 
-0.080961 0.0349688 -0.0145414 24 26 25 -0.120527 -0.518412 -0.846594 
-0.0118243 0.0467879 -0.0226553 8 10 8 0.0130886 0.0171159 -0.999768 
-0.0812158 0.0368073 -0.014751 13 15 13 -0.172243 0.120198 -0.977694 
-0.0448054 0.0228883 -0.00124853 10 10 10 -0.26758 -0.963042 -0.0308272 
-0.0307889 0.0409479 0.0247962 7 8 7 -0.0312753 -0.29649 0.954524 
-0.010933 0.047127 -0.0226634 12 13 12 -0.043572 0.0478229 -0.997905 
-0.0813595 0.039059 -0.0156506 23 24 23 -0.0264999 -0.788022 -0.615076 
-0.0391601 0.0454359 0.0243808 8 11 10 -0.0716053 -0.0245809 0.99713 
-0.0800157 0.0354029 -0.0148156 21 23 21 -0.0174466 -0.476427 -0.879041 
-0.0805064 0.0372212 -0.0148456 13 16 15 -0.106154 -0.0696277 -0.991909 
-0.0689334 0.0344498 -0.0150192 32 35 32 0.0295227 -0.645282 -0.763373 
-0.0694164 0.0356397 -0.0160043 22 25 22 0.00136793 -0.592312 -0.805708 
-0.0330568 0.0506686 0.0241876 15 16 14 -0.0386159 -0.0302665 0.998796 
-0.0105682 0.035029 -0.0200652 8 9 8 -0.0502308 -0.449362 -0.891936 
-0.0554325 0.0253611 0.00127987 7 7 6 0.0858124 -0.991991 -0.0926774 
-0.00750658 0.0351033 -0.0211274 13 15 13 -0.779485 -0.318517 -0.539397 
-0.0540556 0.0258144 0.00490432 8 10 8 -0.132442 -0.990487 0.0373555 
-0.0735913 0.0319514 -0.0113921 3 4 3 0.00558689 -0.98888 -0.148611 
-0.00841867 0.0395032 -0.0220261 17 19 16 -0.364968 -0.249715 -0.896906 
-0.0396844 0.0522457 0.0244036 9 11 8 0.019832 -0.192487 0.981099 
-0.0738238 0.034756 -0.0149644 26 29 28 -0.061758 -0.650613 -0.756894 
-0.0355902 0.0491493 0.0243439 14 15 15 -0.0311871 0.0720531 0.996913 
-0.0733596 0.0356276 -0.0153584 26 28 27 -0.0556075 -0.173921 -0.983188 
-0.0725022 0.0367993 -0.0152213 9 10 8 0.0124893 0.162361 -0.986652 
-0.00709484 0.0447835 -0.024253 18 19 17 -0.796832 -0.00688111 -0.604161 
-0.0554526 0.0255529 -0.00209217 6 6 5 -0.0122752 -0.98983 -0.141723 
-0.0506865 0.0256608 -0.00181235 12 14 12 -0.0673612 -0.959579 0.273258 
-0.0272434 0.044132 0.0248216 12 14 13 -0.530746 0.0204658 0.847284 
-0.00922079 0.0243775 0.0107273 65 14 1 -0.00534612 -0.0951609 0.995448 
-0.0827067 0.0322835 -0.0108418 2 3 2 -0.161971 -0.916895 -0.364786 
-0.0318491 0.0468879 0.0246176 8 10 8 -0.0519699 0.0350002 0.998035 
-0.0827167 0.0298322 -0.00864551 16 18 17 -0.0140316 -0.360994 -0.932462 
-0.0501391 0.0259245 0.00465996 13 13 12 -0.0704656 -0.994348 0.0794136 
-0.0283839 0.0455132 0.0246715 9 11 9 -0.0090254 -0.017048 0.999814 
-0.0276264 0.045868 0.0247683 16 18 16 -0.299 -0.01861 0.954072 
-0.0122401 0.0257391 0.0131938 14 15 13 -0.0343034 -0.998957 0.0301454 
-0.0112585 0.025653 0.0129362 14 12 12 -0.0393987 -0.997747 0.0543064 
-0.0264155 0.0456351 0.0254747 40 19 11 -0.322023 -0.0474695 0.945541 
-0.0111879 0.0257213 0.0142636 14 14 12 0.0769729 -0.996311 0.0379444 
-0.0870484 0.0301991 -0.0076621 5 7 5 -0.447922 -0.821454 -0.352956 
-0.0132758 -0.0127352 -0.00599418 45 48 46 -0.541826 -0.254518 -0.801028 
-0.015403 -0.011399 -0.00308708 8 10 8 -0.864601 0.391604 -0.314819 
-0.0241971 0.0433659 0.0253983 96 28 5 -0.0390117 -0.110347 0.993127 
-0.0754414 0.0267222 0.00316531 21 22 21 -0.00356359 -0.970485 0.241136 
-0.0114226 -0.0100977 -0.00682489 12 13 12 -0.196057 -0.0246538 -0.980283 
-0.0243181 0.0455857 0.0256061 97 28 3 -0.0349962 -0.0540851 0.997923 
-0.0140983 -0.0106076 -0.0049006 12 14 12 -0.757878 0.264229 -0.596493 
-0.0233737 0.0474633 0.0256116 58 21 5 -0.0306289 0.0538645 0.998078 
-0.0230825 0.045651 0.0256567 90 26 5 -0.0265096 -0.0604418 0.99782 
-0.0156683 -0.0124283 -0.00209947 10 10 10 -0.987395 -0.061785 -0.145719 
-0.0680202 0.0265434 0.00466593 26 26 25 0.222778 -0.915545 0.334885 
-0.0861503 0.0306238 -0.00842945 21 24 22 -0.250091 -0.185202 -0.950345 
-0.0155833 -0.0112183 -0.00167737 11 11 10 -0.9192 0.233743 -0.316916 
-0.0750792 0.0281007 0.00548429 32 33 30 0.0391021 -0.979922 0.19551 
-0.0180961 0.0452612 0.0258211 9 8 8 -0.0930024 -0.0593871 0.993893 
-0.0191962 0.0460451 0.0257683 107 30 5 -0.0190153 -0.00500404 0.999807 
-0.0732356 0.0281358 0.00585211 28 28 27 -0.0570265 -0.99405 0.0928078 
-0.0154543 -0.0103878 -3.80948e-05 11 11 10 -0.925138 0.376126 -0.0514699 
-0.0385229 0.0536606 0.0240545 17 19 16 -0.0373032 0.338302 0.940298 
-0.071674 0.0277715 0.00614352 33 33 33 -0.307858 -0.949336 -0.0631173 
-0.0776355 0.0280634 -0.00626137 2 2 1 -0.0394973 -0.946661 -0.319801 
-0.0776826 0.0279433 -0.00586377 3 3 2 -0.0286805 -0.956431 -0.290546 
-0.0695916 0.0273669 0.00754793 14 14 13 0.0545451 -0.919284 0.389798 
-0.0145826 -0.00771167 8.40102e-05 28 26 24 -0.989715 0.115137 -0.0848992 
-0.0738169 0.0294275 -0.00905049 12 14 13 -0.181628 -0.602883 -0.77688 
-0.0350835 0.0547136 0.0237878 19 20 18 -0.0370975 0.331319 0.942789 
-0.0634393 0.0259378 0.0069451 16 16 15 0.15193 -0.979515 0.132167 
-0.0737614 0.0281153 -0.00666301 3 4 2 -0.00127098 -0.929088 -0.369856 
-0.0629622 0.0253733 0.00388139 13 14 12 -0.0876181 -0.976139 0.198683 
-0.0341403 0.0599294 0.0212858 10 12 10 -0.0291598 0.5707 0.820641 
-0.0606208 0.0259776 0.00624883 21 21 18 -0.00115774 -0.97829 0.207235 
-0.0673859 0.0272752 0.00706735 4 5 3 -0.299565 -0.88364 0.359779 
-0.0690107 0.027775 0.00852935 21 20 19 0.117062 -0.940534 0.318893 
-0.012222 -0.00173243 -0.00625638 14 17 16 -0.592353 -0.201554 -0.78006 
-0.0660743 0.0278306 0.0101777 16 17 16 -0.362153 -0.861462 0.355989 
-0.0136926 -0.00388468 -0.00398202 6 7 5 -0.957148 -0.0783705 -0.278793 
-0.0256733 0.0496935 0.0253948 93 29 8 -0.0625089 0.10797 0.992187 
-0.0254039 0.050839 0.025256 101 33 10 0.00796854 0.174169 0.984683 
-0.0830159 0.0328448 -0.012492 32 35 33 -0.124256 -0.834707 -0.536493 
-0.0833132 0.0331699 -0.0128565 30 33 30 -0.123611 -0.719328 -0.683585 
-0.0824639 0.033902 -0.013513 29 32 29 -0.0207473 -0.579542 -0.814678 
-0.0292684 0.0580851 0.0225408 16 19 17 0.00400086 0.486771 0.87352 
-0.0758697 0.0279827 0.00787722 25 26 26 -0.0801142 -0.99662 -0.0181592 
-0.0274383 0.0558698 0.0236622 15 18 17 -0.0565076 0.358758 0.931719 
-0.0798091 0.0323024 -0.0115411 15 15 16 -0.156878 -0.98754 -0.0124148 
-0.0127765 2.10873e-05 -0.00631738 12 14 13 -0.68405 -0.196105 -0.70258 
-0.0247813 0.0555528 0.0239286 99 39 16 -0.0140111 0.357919 0.933647 
-0.0825921 0.0373235 -0.0147728 14 17 16 -0.0366504 -0.195075 -0.980103 
-0.0156921 -0.0110708 0.00157662 12 12 13 -0.984102 0.176515 -0.0196128 
-0.0155042 -0.0101413 0.00137194 13 14 14 -0.946235 0.312794 -0.082452 
-0.0309988 0.0520458 0.0247113 11 12 11 -0.00771887 -0.131221 0.991323 
-0.0785575 0.0317332 -0.0102285 12 14 12 0.00960608 -0.808283 -0.588716 
-0.0754058 0.0320166 -0.0112475 3 5 3 -0.00832426 -0.97156 -0.236647 
-0.073251 0.0288615 0.0104755 23 23 21 -0.049117 -0.919947 0.388953 
-0.072812 0.0302405 0.0120801 8 9 10 -0.0914949 -0.219337 0.97135 
-0.0140673 -0.00557407 0.00337295 18 19 17 -0.962099 0.223835 0.155768 
-0.0360305 0.0630781 0.0178085 9 11 10 -0.0890486 0.672974 0.734286 
-0.0911719 0.0497489 -0.0139459 29 35 31 -0.513536 0.231475 -0.826257 
-0.0317485 0.0609781 0.0204298 23 24 24 -0.104314 0.858807 0.501566 
-0.0306896 0.0607272 0.0208581 8 8 7 -0.0153355 0.690096 0.723555 
-0.0759951 0.0324786 0.0140793 34 35 33 0.0331933 -0.987787 0.152231 
-0.0742736 0.0324762 0.0145809 16 19 17 -0.0717176 -0.97852 0.193273 
-0.0352955 0.0647377 0.0161037 12 13 12 -0.0352471 0.754288 0.655596 
-0.0145677 -0.00112158 -0.00152051 12 14 12 -0.939241 -0.330793 -0.0916656 
-0.0857221 0.0452003 -0.0166943 51 57 55 -0.256235 0.474112 -0.842355 
-0.0279477 0.0630943 0.0181578 6 8 7 -0.0617661 0.679427 0.731138 
-0.030518 0.0649431 0.0161119 11 13 11 -0.110925 0.749853 0.652239 
-0.0140587 -0.000728873 0.00447419 41 41 39 -0.906464 -0.283546 0.312929 
-0.0138771 -0.00121196 0.0046162 30 30 30 -0.921902 -0.205972 0.328135 
-0.0675187 0.0300047 0.0128289 7 7 7 -0.00409106 -0.816848 0.576839 
-0.0145328 -0.000141505 0.00367137 49 47 42 -0.914133 -0.300836 0.271769 
-0.0153401 0.00213044 0.00366862 33 33 32 -0.855072 -0.400477 0.329349 
-0.0631118 0.0279897 0.0113311 6 7 6 0.322803 -0.840536 0.435083 
-0.0626343 0.0291572 0.0130217 5 7 5 0.229655 -0.757706 0.610852 
-0.0237624 0.0591248 0.0222656 99 36 12 -0.023017 0.491481 0.870584 
-0.0228517 0.013294 -0.00963354 128 46 19 -0.286584 -0.0362924 -0.957367 
-0.0218579 0.0590332 0.0223539 101 36 12 -0.0147563 0.486956 0.873302 
-0.0215908 0.0598755 0.0218618 101 35 10 -0.00405061 0.52793 0.849278 
-0.0883487 0.0495611 -0.0158826 28 32 30 -0.545829 0.230392 -0.8056 
-0.024557 0.0620373 0.0202884 105 34 8 0.004115 0.607649 0.794195 
-0.0252037 0.0111494 -0.00742469 114 30 10 -0.264471 -0.924932 -0.273048 
-0.0258949 0.0644067 0.0182498 104 28 5 -0.117509 0.688693 0.715467 
-0.0834136 0.0496137 -0.0177472 17 19 17 -0.0382428 0.161083 -0.9862 
-0.0217785 0.0620063 0.0203744 104 33 9 -0.0180067 0.608071 0.793678 
-0.0218895 0.0607156 0.0213111 101 34 9 -0.00957712 0.56505 0.825001 
-0.0640306 0.0305739 0.0156706 8 8 7 0.044029 -0.757014 0.651913 
-0.0219143 0.0611855 0.0209809 102 35 9 -0.0123824 0.581974 0.813113 
-0.0648397 0.0307202 0.0155927 8 10 8 -0.38392 -0.753136 0.53422 
-0.0617116 0.0311941 0.0156235 5 5 4 0.0735972 -0.627741 0.774935 
-0.0656954 0.0326848 0.0165327 3 5 3 -0.725996 -0.381845 0.571948 
-0.0845755 0.052826 -0.0165149 4 4 3 -0.145872 0.747407 -0.648154 
-0.0827613 0.0528047 -0.0166527 2 1 0 -0.15239 0.746863 -0.647281 
-0.0263162 0.0105197 -0.00156399 60 6 1 -0.216176 -0.962964 -0.161149 
-0.0210063 0.050092 0.0254515 101 36 12 -0.0281731 0.134104 0.990567 
-0.0230207 0.0498325 0.0254485 98 32 9 -0.0189502 0.132651 0.990982 
-0.0290562 0.0139329 -0.0034226 105 21 3 -0.941846 0.0694268 -0.328795 
-0.0848767 0.0531947 -0.0160391 1 1 1 -0.0610449 0.80778 -0.586315 
-0.0856277 0.0535359 -0.0152324 33 39 38 -0.30357 0.727605 -0.615172 
-0.0895725 0.0529936 -0.0140223 33 37 33 -0.587388 0.273903 -0.761546 
-0.0902163 0.0527385 -0.0135487 25 30 28 -0.588781 0.324233 -0.740412 
-0.0167966 0.0468417 0.0259031 10 11 10 -0.00711637 0.0355818 0.999341 
-0.0160754 0.0482783 0.0258542 12 13 11 0.0285718 0.0582018 0.997896 
-0.0566282 0.0263112 0.00683301 8 8 7 0.0239524 -0.99871 0.0447805 
-0.0549502 0.0260588 0.00587459 11 11 10 0.111782 -0.953437 0.280113 
-0.0552465 0.0263358 0.00682919 8 9 7 -0.0565772 -0.961812 0.267799 
-0.0332603 0.0226281 -0.00889294 10 8 8 -0.0515452 -0.959243 -0.277841 
-0.0528388 0.026993 0.00854092 12 12 12 -0.0856841 -0.942525 0.322963 
-0.0346098 0.0231274 -0.00998337 10 10 9 -0.0951203 -0.861761 -0.498317 
-0.0161165 0.0518186 0.0252825 16 16 15 0.0291547 0.180759 0.983095 
-0.0583872 0.0275107 0.0100764 13 13 12 -0.00626343 -0.943272 0.331962 
-0.0167162 0.0536421 0.0248702 14 15 13 0.0179284 0.23546 0.971719 
-0.0847365 0.0552827 -0.0145198 22 24 21 0.0011104 -0.145462 -0.989363 
-0.0843828 0.055165 -0.014493 21 23 21 -0.014983 0.00699205 -0.999863 
-0.0837962 0.0564488 -0.0150002 24 27 24 -0.0986752 -0.208592 -0.973012 
-0.0157708 0.0462917 0.0259026 12 13 12 0.023387 -0.0193197 0.99954 
-0.0576903 0.0284246 0.0116867 10 11 9 0.0396298 -0.870489 0.49059 
-0.0823025 0.0587792 -0.0136639 17 19 17 -0.0795487 0.617587 -0.78247 
-0.0140884 0.0513991 0.0253656 10 12 11 0.215296 0.218004 0.951904 
-0.0528042 0.0276445 0.00974774 16 16 15 -0.0193623 -0.925517 0.37821 
-0.0813581 0.0406128 -0.0172819 9 10 10 -0.140347 -0.362678 -0.921286 
-0.0537475 0.0283812 0.0113083 12 12 11 0.0282204 -0.885584 0.463621 
-0.0265382 0.0176273 -0.00749955 128 45 17 -0.680095 -0.0499022 -0.731423 
-0.0187324 0.0562202 0.0238497 85 33 19 -0.0759569 0.355798 0.931471 
-0.0444924 0.0246632 0.0117537 14 15 14 -0.231867 -0.890545 0.391367 
-0.0749011 0.0399127 -0.0174747 12 14 12 0.0575796 -0.546304 -0.835606 
-0.0147808 0.0543431 0.0246396 12 14 12 -0.0185627 0.290816 0.956599 
-0.0488324 0.0264211 0.00655303 7 8 7 -0.183698 -0.980921 0.0636338 
-0.0808343 0.0443944 -0.0177272 0 0 0 -0.0434758 0.582015 -0.812015 
-0.0493898 0.0265768 0.006975 16 16 14 -0.0692784 -0.963599 0.258219 
-0.0224476 0.0183344 -0.00981034 124 43 17 -0.272317 -0.0060515 -0.962188 
-0.0778785 0.0451432 -0.017411 22 23 21 -0.163524 0.490571 -0.855921 
-0.0456389 0.0255922 0.0105629 24 24 23 -0.886812 -0.332743 0.320698 
-0.0739237 0.0425846 -0.0183147 7 8 7 -0.0515811 -0.275518 -0.959911 
-0.016066 0.0610082 0.021302 14 16 15 0.127972 0.554544 0.822255 
-0.0278634 0.0163101 -0.00542609 114 28 5 -0.845976 -0.161491 -0.508178 
-0.0761284 0.0447373 -0.0177953 10 14 17 -0.107448 0.625556 -0.772745 
-0.0282099 0.0164317 -0.00483298 106 24 2 -0.894675 -0.141264 -0.423793 
-0.0291037 0.0175292 -0.00326357 97 17 1 -0.914741 -0.186944 -0.35819 
-0.048615 0.0293729 0.0125537 6 7 5 -0.229675 -0.742149 0.629654 
-0.0451264 0.0262905 0.0135754 28 30 28 -0.734757 -0.5069 0.450761 
-0.0255794 0.0550824 -0.024262 36 35 34 -0.0745357 0.397072 -0.914756 
-0.0241759 0.0556741 -0.0242216 104 53 29 -0.087139 0.352578 -0.931717 
-0.0458493 0.0279573 0.0136348 12 12 12 -0.921642 -0.137621 0.362818 
-0.0688774 0.0384882 -0.0174564 10 12 10 -0.0874343 -0.442723 -0.892385 
-0.0264797 0.0211543 -0.00756542 67 5 3 -0.596065 -0.485247 -0.63972 
-0.0448147 0.0277365 0.0150562 7 8 7 -0.0499909 -0.73558 0.675591 
-0.0466603 0.0294796 0.013765 1 3 1 -0.537889 -0.719943 0.438586 
-0.0354483 0.0589925 -0.0212619 30 33 30 -0.132619 0.61243 -0.779321 
-0.0712714 0.0405175 -0.0179787 9 10 8 -0.139243 -0.34604 -0.927829 
-0.0704987 0.0421826 -0.0185074 7 8 7 -0.0437089 -0.185467 -0.981678 
-0.0579186 0.0289713 0.0126959 5 5 5 0.114864 -0.836036 0.536517 
-0.0688424 0.0435721 -0.0188507 6 7 5 -0.0236536 -0.138543 -0.990074 
-0.0570427 0.0302018 0.0142518 5 7 5 0.0797988 -0.663055 0.744305 
-0.0604099 0.0295914 0.0136188 12 13 11 0.0366961 -0.876628 0.479767 
-0.0221852 0.0113652 -0.00913191 119 35 8 -0.168079 -0.785885 -0.595092 
-0.030306 0.057168 -0.0228469 30 33 31 -0.0803207 0.398881 -0.913478 
-0.0174424 0.00876404 -0.00720955 14 14 11 -0.122419 -0.272481 -0.954342 
-0.0183268 0.00984212 -0.00713836 14 11 9 -0.167179 -0.0805827 -0.982628 
-0.0747563 0.0382518 -0.0156445 16 17 16 -0.115512 -0.466327 -0.877038 
-0.0238007 0.0569322 -0.0236359 48 37 29 -0.0902935 0.434798 -0.89599 
-0.0542867 0.0294079 0.0129959 10 11 9 -0.0466197 -0.78971 0.611707 
-0.0249765 0.0583629 -0.0229151 125 59 33 -0.085186 0.465032 -0.881186 
-0.0274652 0.0584337 -0.022544 103 65 49 -0.375041 0.484495 -0.790322 
-0.0529132 0.0311348 0.0150904 7 8 6 -0.0238643 -0.739793 0.672411 
-0.00968931 0.0020546 -0.00745455 9 9 8 -0.052391 -0.0459758 -0.997568 
-0.00791491 0.0047024 -0.00757026 7 7 5 -0.0209326 -0.00099679 -0.99978 
-0.07732 0.0480971 -0.0179896 24 28 25 -0.0512936 -0.364316 -0.929862 
-0.0775177 0.0495333 -0.0181328 14 16 14 -0.00112041 0.160219 -0.987081 
-0.0577802 0.0334862 0.0175283 10 12 11 -0.109043 -0.559752 0.821454 
-0.0141316 0.00318497 -0.00622565 24 25 23 -0.57076 -0.356115 -0.739875 
-0.0589721 0.0342361 0.0180246 7 10 8 0.0235566 -0.588914 0.807852 
-0.0748732 0.046648 -0.0175846 29 30 26 -0.0249257 -0.212462 -0.976851 
-0.0729184 0.0467664 -0.0176914 8 10 9 0.0614954 -0.090566 -0.99399 
-0.0139619 0.00508474 -0.00707298 21 23 22 -0.29029 -0.214562 -0.932574 
-0.073339 0.0489984 -0.0185101 13 15 12 -0.130234 0.135103 -0.982235 
-0.0541634 0.0342033 0.0177256 10 12 10 0.0397112 -0.497074 0.866799 
-0.0534802 0.0353334 0.0185145 10 11 10 0.0832319 -0.399786 0.912822 
-0.0530004 0.035795 0.018735 10 11 10 0.00135493 -0.548745 0.835989 
-0.0425743 0.0621744 -0.0173783 21 24 22 -0.0554688 0.61869 -0.783674 
-0.0491727 0.0311823 0.0149902 5 6 4 0.107334 -0.862963 0.493735 
-0.0451137 0.0641137 -0.0150425 12 14 12 -0.181294 0.775451 -0.604821 
-0.0184194 0.0112217 -0.00966434 119 35 5 -0.0671602 -0.804493 -0.590152 
-0.0202407 0.0127486 -0.0102099 119 33 8 -0.152911 -0.0356409 -0.987597 
-0.0661629 0.0486027 -0.0198241 42 46 44 -0.537121 0.0722775 -0.840403 
-0.0453705 0.0296179 0.0162059 17 17 15 -0.860702 -0.401866 0.312563 
-0.0710164 0.044859 -0.0184271 11 12 12 -0.534024 0.350101 -0.769576 
-0.0170555 0.0124412 -0.0104301 121 34 7 -0.0616638 -0.143107 -0.987784 
-0.0700688 0.0459802 -0.0189658 11 14 12 -0.234079 -0.0375982 -0.97149 
-0.0700215 0.0470083 -0.0189363 15 18 16 -0.264182 0.0563422 -0.962826 
-0.0451352 0.0680579 -0.00922265 9 10 8 -0.598297 0.713039 -0.365535 
-0.0182967 0.0168073 -0.0103666 117 33 7 -0.0680781 -0.170792 -0.982952 
-0.0393391 0.0622777 -0.0176386 19 23 22 -0.0921412 0.67424 -0.732742 
-0.0690418 0.0520572 -0.0182204 20 24 22 -0.0729011 0.277536 -0.957945 
-0.0119081 0.016728 -0.0105848 98 21 2 0.101478 0.253053 -0.962116 
-0.0477906 0.0339037 0.0175009 7 8 7 -0.0558148 -0.333591 0.941064 
-0.0795874 0.0482721 -0.0179009 21 24 22 0.0737899 -0.471977 -0.878517 
-0.0793892 0.050993 -0.017735 19 23 21 -0.0680758 0.226507 -0.971628 
-0.0786138 0.0515326 -0.0176837 21 24 23 -0.129476 0.184786 -0.974213 
-0.0058807 0.0105909 -0.0108332 121 35 8 -0.155634 -0.143183 -0.977383 
-0.0416078 0.063683 -0.01592 15 17 16 -0.126724 0.732015 -0.669399 
-0.00599625 0.00845905 -0.00970492 118 33 6 -0.693872 -0.564083 -0.447606 
-0.0456709 0.0368863 0.0201071 1 2 1 -0.874182 0.0229692 0.485056 
-0.0796693 0.0525444 -0.0172146 28 32 30 0.0465989 0.597313 -0.800653 
-0.0454448 0.0358158 0.0207607 14 15 14 -0.956285 -0.124962 0.264392 
-0.0779549 0.0329069 0.0154851 5 7 5 -0.0455279 -0.859511 0.509085 
-0.0782818 0.0333381 0.0160268 7 8 7 -0.0589424 -0.708747 0.702996 
-0.0365126 0.0642032 -0.015948 12 15 14 -0.00415175 0.748699 -0.662897 
-0.0373821 0.0646517 -0.0153707 11 14 12 -0.0294039 0.777104 -0.628684 
-0.00819138 0.0151503 -0.0109807 111 29 5 -0.102613 -0.0342044 -0.994133 
-0.0773934 0.0351014 0.0175522 12 15 12 -0.0380433 -0.618556 0.784819 
-0.0720763 0.0531381 -0.0171429 0 0 0 0.047033 0.739701 -0.67129 
-0.0358136 0.0657836 -0.01447 33 39 39 -0.0953141 0.505023 -0.857827 
-0.0755072 0.0539116 -0.01605 42 46 44 -0.106512 0.585086 -0.803946 
-0.0338266 0.0661833 -0.0144386 28 29 27 -0.17718 0.495806 -0.850167 
-0.0325045 0.0626879 -0.0179266 19 21 19 -0.111102 0.674019 -0.730311 
-0.0299658 0.0622593 -0.0185195 21 22 19 -0.00137867 0.643838 -0.765161 
-0.0709572 0.0355095 0.0180581 17 19 17 0.029052 -0.563056 0.825908 
-0.0627788 0.0512748 -0.0195882 17 20 19 0.127337 0.398803 -0.908152 
-0.0284737 0.0631949 -0.0178722 21 21 19 -0.215846 0.628904 -0.746921 
-0.0675965 0.0528531 -0.0178676 11 14 14 0.0530548 0.243065 -0.968558 
-0.0274098 0.0640843 -0.0179279 25 14 11 -0.647562 0.513004 -0.563463 
-0.0670752 0.0342954 0.0171346 13 14 13 0.0692315 -0.532659 0.843494 
-0.0220668 0.00710209 -0.00246683 12 8 6 -0.124392 -0.991772 0.0302574 
-0.0649577 0.054089 -0.0190426 30 33 32 0.0426739 0.345271 -0.937532 
-0.0625575 0.0524519 -0.0192988 15 18 19 0.0680192 0.121051 -0.990313 
-0.0330473 0.0676797 -0.0129506 7 8 7 -0.0797845 0.87203 -0.482906 
-0.0774267 0.0392365 0.0187529 15 17 16 -0.0013836 -0.718088 0.695951 
-0.0184842 0.00663257 -0.0049265 7 8 7 -0.35049 -0.816754 -0.458334 
-0.074596 0.0398588 0.0198153 7 8 7 -0.0618868 -0.732567 0.677876 
-0.0745516 0.0399195 0.0198842 7 8 7 -0.0558277 -0.685679 0.72576 
-0.0756979 0.0420398 0.0206933 7 10 8 -0.021969 -0.176909 0.983982 
-0.0284665 0.0672637 -0.0143664 7 7 7 0.0238305 0.654638 -0.755567 
-0.071455 0.0570797 -0.0158328 26 27 25 -0.145106 0.593889 -0.791353 
-0.0239285 0.0679809 -0.0139978 115 35 3 -0.0575796 0.835606 -0.546304 
-0.073773 0.0422684 0.0207477 7 8 8 -0.0523189 -0.217793 0.974592 
-0.0243472 0.00745072 0.000833974 8 7 5 -0.299962 -0.94966 0.0903814 
-0.042255 0.0665693 -0.0133525 11 13 11 -0.0646967 0.763421 -0.642653 
-0.023211 0.00733222 0.00151717 5 7 6 -0.133425 -0.984458 0.114192 
-0.0212046 0.00703069 0.00186056 20 21 19 -0.181701 -0.977725 0.105065 
-0.0376407 0.0672656 -0.0129852 8 9 7 -0.0235499 0.815934 -0.577665 
-0.0193362 0.0067317 0.00268174 16 16 15 -0.396316 -0.910831 0.115418 
-0.0696296 0.0364314 0.0185829 16 17 16 -0.260897 -0.411704 0.873174 
-0.0720849 0.0603887 -0.0127628 11 11 10 0.149288 0.83808 -0.524724 
-0.0172093 0.00479 -0.00298962 12 13 11 -0.80365 -0.562707 -0.193669 
-0.0669162 0.0369365 0.0187753 7 8 8 -0.00970484 -0.661315 0.750045 
-0.0162427 0.00493541 0.00537481 33 34 32 -0.761298 -0.45023 0.466602 
-0.070799 0.0574644 -0.0155754 27 30 28 -0.0522081 0.574289 -0.816986 
-0.0677005 0.0574513 -0.0155418 28 31 29 0.00406093 0.537396 -0.84332 
-0.0398217 0.0696792 -0.00729898 7 8 6 -0.113155 0.946508 -0.30219 
-0.0388912 0.0692483 -0.00868153 7 8 7 -0.0366863 0.950049 -0.309936 
-0.06502 0.0377713 0.020436 10 11 10 -0.567076 -0.367701 0.737035 
-0.067088 0.0578954 -0.0156391 5 7 5 -0.700287 0.362444 -0.615006 
-0.0620978 0.0379121 0.0204472 11 12 10 0.131445 -0.574517 0.807869 
-0.0368812 0.0697868 -0.0076191 7 7 7 -0.0768709 0.921102 -0.381657 
-0.0646709 0.0579072 -0.0169338 23 26 24 -0.161317 0.589485 -0.791508 
-0.0651026 0.0580813 -0.0166036 25 29 27 -0.496968 0.520394 -0.694416 
-0.0632156 0.0586066 -0.0162006 16 17 14 0.121891 0.410506 -0.903674 
-0.0296605 0.0123483 0.00070313 115 33 12 -0.979993 -0.194093 0.044058 
-0.0644861 0.0387968 0.0211281 15 18 16 -0.309011 -0.323939 0.89419 
-0.0296478 0.0129784 -0.00127855 112 26 5 -0.985607 -0.0407276 -0.164074 
-0.0295332 0.0141835 -0.00150052 108 23 5 -0.97662 0.120678 -0.177907 
-0.0691218 0.059207 -0.014199 12 15 12 -0.16103 0.591447 -0.790101 
-0.0295404 0.0150369 -0.000520826 105 23 7 -0.98411 0.11684 -0.133704 
-0.0659091 0.0415041 0.0207777 10 12 10 -0.74632 -0.0153449 0.66541 
-0.0295149 0.0153562 0.00145141 108 24 8 -0.982235 0.130234 0.135103 
-0.0672494 0.0439008 0.0211082 4 5 3 0.172732 -0.142472 0.97461 
-0.0283609 0.0699932 -0.0085171 6 7 5 -0.114875 0.936573 -0.331112 
-0.0278096 0.070091 -0.0085183 7 7 5 -0.25772 0.910028 -0.324698 
-0.0279932 0.0128869 0.00660701 117 29 6 -0.824655 -0.146572 0.546315 
-0.0632993 0.0394216 0.0213331 9 10 8 0.193524 -0.326307 0.925242 
-0.0295594 0.0135928 0.00247738 118 33 14 -0.991493 -0.0302489 0.126597 
-0.029489 0.0143492 0.00291757 118 35 19 -0.985016 0.0699349 0.15765 
-0.032822 0.0702615 -0.00716574 7 7 5 -0.0941539 0.942865 -0.319593 
-0.0616912 0.0613697 -0.0137917 10 12 10 0.00683354 0.578118 -0.815925 
-0.0290222 0.0145609 0.00436539 119 36 17 -0.927468 0.130533 0.350377 
-0.0628737 0.0410358 0.0217942 14 15 13 0.250312 -0.341068 0.9061 
-0.0293891 0.0160311 0.0018561 101 16 3 -0.987615 0.0193204 0.1557 
-0.064765 0.0615186 -0.0140395 12 16 13 -0.101556 0.746219 -0.657909 
-0.0609096 0.0426537 0.0218606 7 8 7 0.0424639 -0.0751285 0.996269 
-0.0286302 0.0147097 0.00525794 119 37 18 -0.896743 0.162131 0.411784 
-0.065634 0.0626227 -0.012377 8 10 7 -0.524379 0.615429 -0.588451 
-0.0284474 0.0168619 0.00505853 110 30 14 -0.892881 -0.162998 0.419755 
-0.0770108 0.0429485 0.0208805 10 11 9 -0.0489189 -0.277207 0.959564 
-0.0764337 0.0433452 0.0210166 9 12 9 -0.0385956 -0.277639 0.95991 
-0.0752266 0.0427663 0.0208387 8 10 8 0.0451253 -0.230505 0.972024 
-0.0752388 0.0449308 0.0207382 12 13 13 0.0295672 0.705388 0.708204 
-0.0262825 0.0713215 -0.00544863 113 36 12 -0.0518106 0.977172 -0.206037 
-0.0880613 0.0286702 0.0011613 10 12 10 -0.592585 -0.805308 -0.0179571 
-0.033556 0.0217377 -0.00337989 24 23 22 -0.109578 -0.962998 0.246228 
-0.033701 0.0218838 -0.00289451 14 14 13 -0.149512 -0.956614 0.250069 
-0.0842797 0.0268123 0.000485826 11 12 10 -0.123583 -0.992004 0.0256073 
-0.0221819 0.0562131 -0.0241824 113 56 34 -0.156393 0.37337 -0.914405 
-0.037316 0.0222019 -0.00145016 14 12 12 -0.0939739 -0.986131 -0.136797 
-0.0394234 0.0221964 -0.000695314 14 14 12 -0.128896 -0.980839 -0.146082 
-0.0393616 0.022149 -0.00048705 14 14 12 -0.088274 -0.987491 -0.130645 
-0.0391097 0.0221514 -0.000498203 14 14 12 0.00530504 -0.996286 -0.0859416 
-0.0882064 0.0297562 0.00595832 23 24 22 -0.235194 -0.965194 0.114384 
-0.0163622 0.0536963 -0.0253449 23 28 26 0.0184578 0.284249 -0.958573 
-0.0359488 0.0219358 5.32466e-05 15 16 14 0.0538679 -0.998141 0.0285183 
-0.0887584 0.0307612 0.00836852 21 22 20 -0.55002 -0.776405 0.307692 
-0.0882423 0.0307276 0.00913721 21 21 21 -0.534574 -0.758802 0.372089 
-0.0330796 0.0217651 0.000950934 14 16 14 0.0338898 -0.999235 0.0195123 
-0.0568273 0.0375475 0.0198515 12 13 11 0.111317 -0.438223 0.891947 
-0.0839834 0.0285929 0.00642585 17 17 17 0.0105384 -0.977731 -0.209597 
-0.0326657 0.021797 0.00109307 13 16 14 0.0362335 -0.999008 0.025881 
-0.0852312 0.0286327 0.00803383 24 24 23 -0.128214 -0.991741 0.00328754 
-0.0850324 0.0287404 0.00733432 4 5 4 -0.270432 -0.943081 -0.193558 
-0.0831984 0.0286019 0.00928283 21 23 21 -0.0603747 -0.916354 0.39579 
-0.0545115 0.0392572 0.0204766 11 12 10 0.072606 -0.344548 0.935957 
-0.0294227 0.0207848 -0.00311737 20 6 3 -0.933077 -0.300767 -0.197247 
-0.0149091 0.0574002 -0.0234685 22 25 23 0.721359 0.325827 -0.611129 
-0.0601482 0.0399915 0.0212191 10 10 9 0.0394973 -0.319801 0.946661 
-0.0866751 0.0298493 0.00992404 20 21 19 -0.604321 -0.724213 0.332133 
-0.0298241 0.0183914 8.29414e-06 94 18 5 -0.986388 -0.0287074 0.16191 
-0.0296751 0.019209 -0.00145644 90 16 2 -0.95833 0.070184 -0.276908 
-0.0967736 0.0384853 -0.0073685 4 4 3 -0.868154 -0.239231 -0.434829 
-0.0297482 0.019143 0.00104507 87 19 6 -0.993871 -0.0525443 0.0972629 
-0.0316971 0.0215877 -0.000616795 4 13 12 -0.291017 -0.953242 0.0814847 
-0.043193 0.0251775 0.0126362 14 14 13 0.0423806 -0.876322 0.479858 
-0.09316 0.03309 -0.00418372 8 9 7 -0.522645 -0.81421 -0.252793 
-0.029788 0.0208857 -6.22204e-05 18 5 1 -0.993452 -0.109645 -0.0321183 
-0.0935431 0.0330718 -0.00333564 5 7 5 -0.537428 -0.800658 -0.264797 
-0.0917582 0.0318649 -0.00333952 7 7 5 -0.376008 -0.890231 -0.257112 
-0.0910546 0.0313968 -0.00281341 7 8 6 -0.544949 -0.797905 -0.257641 
-0.0935591 0.0360293 -0.00834679 10 11 9 -0.615452 -0.384451 -0.688052 
-0.0385866 0.0250632 0.0129666 14 14 13 -0.0234331 -0.831185 0.555502 
-0.0411325 0.0225527 0.00566361 1 3 1 -0.0947719 -0.938376 -0.332369 
-0.0367299 0.0248648 0.0128118 13 15 13 -0.0989385 -0.844562 0.526238 
-0.0398603 0.022222 0.006073 13 14 12 -0.137631 -0.988861 -0.0566716 
-0.01146 0.0541705 -0.0211738 24 26 24 -0.0962994 0.310005 -0.945845 
-0.0133221 0.0551588 -0.0226804 17 17 17 0.839023 0.184615 -0.511819 
-0.0405506 0.0232658 0.00909434 21 21 19 -0.0627551 -0.922634 0.380537 
-0.0923517 0.0330367 -0.00562845 5 5 5 -0.518699 -0.727504 -0.449097 
-0.0407104 0.0261051 0.0143289 8 10 8 -0.117615 -0.449204 0.885654 
-0.0958156 0.0341622 -0.00164992 6 7 5 -0.625719 -0.764433 -0.155299 
-0.0414891 0.0226189 0.00253884 18 19 17 -0.0976602 -0.99344 0.0594941 
-0.00781224 0.0539324 -0.0217379 18 21 20 -0.704341 0.244234 -0.666524 
-0.0923918 0.0317946 -0.00120307 7 7 7 -0.478734 -0.870296 -0.115754 
-0.0935081 0.0327478 -0.00249069 7 7 6 -0.519945 -0.793433 -0.316419 
-0.010558 0.0546494 -0.0210918 24 28 25 -0.0762292 0.367772 -0.926786 
-0.00881954 0.053581 -0.0214289 24 27 25 0.0502309 0.325857 -0.944084 
-0.0936736 0.0324504 -0.000712692 9 9 8 -0.564883 -0.824311 -0.0376589 
-0.0943914 0.0328153 0.00053733 8 10 8 -0.54885 -0.82837 -0.112099 
-0.0357306 0.0222013 0.00375562 23 23 22 -0.0991188 -0.985217 0.139722 
-0.0922309 0.0315006 0.00161036 12 12 10 -0.571437 -0.818162 0.0638081 
-0.0961249 0.0406166 -0.00959388 29 32 30 -0.62793 -0.3474 -0.696432 
-0.0106541 0.0606675 -0.022955 14 17 14 -0.51772 0.521071 -0.678565 
-0.00992064 0.0611482 -0.0233324 12 14 12 -0.682681 0.462354 -0.565841 
-0.0967755 0.0426103 -0.00827187 32 37 40 -0.821447 -0.309417 -0.479047 
-0.0955942 0.0433154 -0.0110812 33 39 38 -0.538472 -0.149823 -0.829217 
-0.037102 0.0227232 0.00810715 22 23 21 0.103049 -0.938143 0.330558 
-0.00653606 0.0593306 -0.0234825 12 14 10 -0.0732691 -0.886141 -0.457586 
-0.034064 0.0251268 0.013699 10 12 10 -0.0246405 -0.924666 0.379982 
-0.0355885 0.0259559 0.0144483 11 12 10 -0.087968 -0.459388 0.883869 
-0.00927151 0.0589305 -0.0219338 5 7 6 0.137042 -0.990489 0.0122558 
-0.0321031 0.0251632 0.0138239 11 13 11 -0.106168 -0.821711 0.559927 
-0.0379404 0.0229572 0.00895625 20 21 19 -0.102154 -0.924836 0.366393 
-0.00715028 0.0588856 -0.0212378 11 12 10 -0.456148 -0.780808 -0.426928 
-0.0290074 0.0241901 0.0125253 13 15 12 -0.0205132 -0.846511 0.531976 
-0.0950308 0.0397041 -0.0098828 24 28 26 -0.41671 -0.426363 -0.80285 
-0.0927507 0.0318302 0.00284427 12 14 10 -0.440002 -0.88717 -0.139023 
-0.032408 0.0222428 0.00758198 25 24 23 -0.119422 -0.923807 0.363757 
-0.0276463 0.0191604 0.00678899 104 27 10 -0.779285 0.0152801 0.626484 
-0.0350665 0.0277454 0.015715 9 10 9 -0.0588607 -0.74222 0.667567 
-0.0946336 0.0336561 0.00610271 21 21 19 -0.532838 -0.787328 0.310159 
-0.0276076 0.0210066 0.00693112 48 9 5 -0.74108 -0.0920869 0.665072 
-0.0225087 0.0583819 -0.023125 126 58 29 -0.079246 0.462963 -0.882828 
-0.0275722 0.0222886 0.00805173 25 19 17 0.0683542 -0.950511 0.30308 
-0.0304348 0.0270454 0.0153417 10 10 8 -0.0768828 -0.709352 0.700649 
-0.0335415 0.0224067 0.00756183 24 24 23 -0.0560396 -0.939641 0.337541 
-0.0330747 0.0224408 0.00781597 24 24 23 -0.114687 -0.937736 0.32787 
-0.0337909 0.0227928 0.00902401 20 21 19 0.0985107 -0.963358 0.249475 
-0.0332519 0.0229179 0.00929606 19 21 19 0.0419043 -0.9511 0.306028 
-0.0316754 0.0225741 0.00890396 21 21 20 -0.0964664 -0.922545 0.373638 
-0.0318848 0.0230862 0.00985696 18 20 17 -0.101376 -0.904052 0.415225 
-0.0343449 0.0228257 0.00928742 19 20 18 -0.0424766 -0.940921 0.335951 
-0.0189882 0.0603097 -0.0220551 28 36 37 -0.134802 0.570314 -0.81029 
-0.0885734 0.0296242 -0.0021309 7 8 7 -0.184974 -0.951873 -0.244382 
-0.0312565 0.0296846 0.0180804 13 14 14 -0.0439928 -0.665568 0.745039 
-0.0887972 0.0296199 -0.00169819 7 8 7 -0.389853 -0.919414 -0.0518917 
-0.0299637 0.0299554 0.0183937 12 13 11 -0.044045 -0.686249 0.726032 
-0.0279568 0.0226039 0.00935496 23 19 18 -0.0318823 -0.94244 0.332851 
-0.0837177 0.0279775 -0.00136621 24 24 23 -0.119484 -0.786232 -0.606269 
-0.0224849 0.062492 -0.0204304 127 53 19 -0.0615481 0.622638 -0.780086 
-0.0876274 0.0284992 7.25279e-05 8 9 7 -0.497311 -0.809907 -0.311017 
-0.0277454 0.0238001 0.0119145 17 16 15 0.0745475 -0.856593 0.51058 
-0.012447 0.0570532 -0.0202105 14 14 12 0.655314 0.0382148 -0.754389 
-0.0903455 0.030389 -0.00109625 9 10 8 -0.599228 -0.794597 -0.0976844 
-0.0429791 0.0303424 0.0178933 12 14 12 -0.0558044 -0.734042 0.676807 
-0.0430328 0.0308903 0.0184404 12 13 12 -0.00137708 -0.651358 0.75877 
-0.0440835 0.0307949 0.0183787 11 12 11 -0.0706616 -0.656144 0.75132 
-0.0920839 0.0313963 0.0018031 12 13 11 -0.563084 -0.819163 0.109125 
-0.0894342 0.0295977 0.00218077 12 13 11 -0.62694 -0.776144 0.0674284 
-0.00856074 0.0579166 -0.0198707 7 8 7 -0.0551035 -0.104584 -0.992988 
-0.0268699 0.0110174 0.00395233 110 36 19 -0.154298 -0.958757 0.2387 
-0.0799365 0.0276226 -0.00120585 24 26 26 -0.0529786 -0.688722 -0.723087 
-0.0160186 0.0610075 -0.0216522 26 28 26 0.00410282 0.581233 -0.813727 
-0.027344 0.0114003 0.00545357 126 58 44 -0.427238 -0.890439 0.156798 
-0.0271709 0.0113799 0.00573128 124 56 41 -0.401291 -0.894515 0.196998 
-0.0254082 0.0115543 0.00766512 124 66 50 -0.18804 -0.923235 0.335079 
-0.02556 0.0116933 0.00789311 116 46 27 -0.296543 -0.843051 0.448696 
-0.0809214 0.0283732 0.00536383 32 32 31 -0.0824886 -0.995362 0.0494932 
-0.0392204 0.0329784 0.0204843 16 17 16 0.00136793 -0.805708 0.592312 
-0.0161303 0.0647115 -0.018462 16 17 16 0.0382351 0.749124 -0.661325 
-0.0912897 0.0314471 0.00562682 20 20 19 -0.517464 -0.830067 0.207896 
-0.0335411 0.0303541 0.0185051 12 15 12 -0.139504 -0.658519 0.739521 
-0.0930861 0.0335285 0.0081972 18 18 18 -0.603403 -0.692674 0.395105 
-0.0107676 0.0620981 -0.0216705 14 15 13 -0.480984 0.574835 -0.661982 
-0.0908119 0.0327862 0.00945392 18 19 19 -0.465292 -0.772222 0.43264 
-0.0903238 0.0329304 0.0102814 18 19 17 -0.500262 -0.741313 0.447429 
-0.00833136 0.058484 -0.0200875 23 25 23 -0.129035 -0.594747 -0.79349 
-0.0889692 0.0322625 0.0108212 17 18 16 -0.48495 -0.769063 0.416372 
-0.0902276 0.0333372 0.0110547 16 17 16 -0.542013 -0.714396 0.442561 
-0.0246815 0.0247997 0.0138861 97 26 3 -0.0433963 -0.82453 0.564152 
-0.0100959 0.0638753 -0.0208804 7 8 7 -0.647028 0.478969 -0.593249 
-0.0149255 0.00811083 0.00798048 10 11 8 -0.0579662 -0.0221326 0.998073 
-0.0129184 0.00815722 0.00805041 7 8 7 -0.029427 0.011162 0.999505 
-0.00671263 0.0658214 -0.0219096 10 12 10 0.0700721 0.984572 -0.160334 
-0.0217856 0.0249425 0.0143642 99 26 3 -0.0349009 -0.808304 0.58773 
-0.0191107 0.0256528 0.015711 38 13 4 -0.23357 -0.722657 0.650548 
-0.0842871 0.0317434 0.0123719 1 1 0 -0.0953047 -0.655403 0.749242 
-0.010388 0.0659093 -0.0183219 9 9 8 -0.341471 0.857541 -0.384735 
-0.0133714 0.0651747 -0.0177785 13 14 12 0.00968787 0.765342 -0.643551 
-0.0126406 0.0663084 -0.0159645 11 12 10 0.00780937 0.989559 -0.143916 
-0.0121279 0.066318 -0.0157757 12 12 11 -0.00323172 0.994292 -0.106647 
-0.024149 0.0287801 0.0186283 97 31 8 -0.0411914 -0.677527 0.734343 
-0.0141731 0.00960163 0.00807791 10 8 6 0.0115182 -0.0638734 0.997892 
-0.0141051 0.0104812 0.00815909 17 9 6 0.0732261 -0.289051 0.954509 
-0.0144662 0.011107 0.00880313 62 21 13 0.0148732 -0.858589 0.512449 
-0.00737139 0.0661932 -0.0179182 9 10 7 0.0247229 0.996438 -0.080618 
-0.0798752 0.0314484 0.0122069 10 10 10 -0.0238432 -0.660598 0.750361 
-0.0106717 0.0663789 -0.015319 10 11 10 -0.0721899 0.991178 -0.111149 
-0.0146059 0.0117309 0.0100136 108 29 8 -0.0123386 -0.81846 0.57443 
-0.0143889 0.0117384 0.0100325 108 30 9 -0.0123745 -0.81534 0.57885 
-0.00718977 0.0662815 -0.0155604 10 10 10 0.0723529 0.996742 -0.0356365 
-0.0488653 0.0381761 0.0198271 10 11 9 0.0686178 -0.508332 0.858423 
-0.0944962 0.0371302 0.0114051 9 10 10 -0.423902 -0.663282 0.616736 
-0.0952303 0.0378776 0.0118156 8 8 7 -0.431559 -0.594852 0.678165 
-0.0104044 0.0164451 0.0108449 104 25 3 0.00689636 0.00295558 0.999972 
-0.00720158 0.0487603 -0.0237824 17 19 19 -0.799623 0.0553913 -0.597942 
-0.060638 0.0651515 -0.00824186 0 1 1 -0.0455722 0.933579 -0.355463 
-0.00682654 0.0505175 -0.0240981 16 19 16 -0.807895 0.134896 -0.57368 
-0.0595168 0.0656718 -0.00751258 10 10 8 0.0429113 0.848537 -0.527394 
-0.062021 0.0657047 -0.0073691 17 18 14 0.0759182 0.815047 -0.5744 
-0.025898 0.0143304 0.00879796 111 29 8 -0.600304 0.0349828 0.799006 
-0.0949967 0.0410553 0.013891 10 10 8 -0.444837 -0.393448 0.804561 
-0.0963453 0.0416442 0.0120677 24 25 22 -0.907744 -0.33474 0.252882 
-0.00592687 0.0529585 -0.0241506 20 23 21 -0.221461 0.240718 -0.944992 
-0.00478349 0.0533977 -0.0240873 25 28 27 0.0307542 0.266946 -0.963221 
-0.0539527 0.0650509 -0.00798228 4 5 4 0.0175327 0.867195 -0.49766 
-0.0537441 0.0653149 -0.00769757 17 21 19 -0.0955119 0.709727 -0.697972 
-0.0547575 0.0657097 -0.0068512 4 5 5 -0.0193136 0.987264 -0.157917 
-0.0952308 0.0428745 0.0144558 12 13 12 -0.517288 -0.259421 0.815545 
-0.021324 0.0127792 0.0106178 108 33 12 -0.117349 -0.327768 0.937442 
-0.0551891 0.0660895 -0.00594847 10 12 8 0.0176175 0.857838 -0.513619 
-0.0545059 0.0662582 -0.00544324 15 16 14 0.0200205 0.997865 -0.062169 
-0.0965768 0.0470299 0.0132943 21 20 17 -0.904835 -0.104244 0.412805 
0.000369667 0.0521529 -0.0243619 24 26 24 -0.15203 0.310908 -0.938202 
-0.0964536 0.0500263 0.0125106 8 7 5 -0.955902 0.097541 0.277016 
0.000348479 0.0537466 -0.0239536 119 38 9 0.00119536 0.254611 -0.967043 
-0.0963567 0.0522923 0.0116025 10 10 7 -0.969007 0.0555481 0.240709 
-0.00640844 0.0549337 -0.023239 14 17 16 -0.614658 0.268417 -0.741719 
-0.0168513 0.0147325 0.010976 107 26 4 0.0229314 0.0993694 0.994786 
-0.059254 0.067073 -0.0027557 5 5 5 -0.00813389 0.979553 -0.201023 
-0.000588231 0.0545827 -0.0239014 129 51 21 0.0972443 0.228587 -0.968654 
-0.0956772 0.0522094 0.0135355 11 12 10 -0.52073 0.320082 0.791446 
-0.0258106 0.0202068 0.0086381 102 28 8 -0.568299 0.0609398 0.820562 
-0.0950556 0.0500803 0.0146285 11 12 10 -0.530266 0.264351 0.805566 
-0.000797392 0.0609707 -0.0249991 14 15 14 -0.00396162 -0.46351 -0.886083 
-0.00196953 0.0622461 -0.0252464 15 16 14 -0.06833 -0.00946108 -0.997618 
-0.0923876 0.0351116 0.0112883 16 17 15 -0.442605 -0.745353 0.498547 
0.00128198 0.0599934 -0.0245228 21 23 20 0.063207 -0.532344 -0.844165 
-0.0499171 0.0662228 -0.00556414 14 16 13 -0.115233 0.993202 -0.0164619 
0.00117821 0.0595625 -0.0241332 17 19 16 -0.00410019 -0.815937 -0.578126 
-0.0935132 0.0368322 0.011953 10 11 10 -0.538247 -0.544997 0.64286 
0.00260213 0.0606012 -0.0248737 21 21 19 -0.0755784 -0.563273 -0.822807 
0.00341575 0.0602132 -0.0246934 24 25 23 -0.131479 -0.565804 -0.81399 
0.00357014 0.0604526 -0.0248861 20 22 19 -0.164046 -0.582438 -0.79615 
-0.0873975 0.0326317 0.0120789 8 8 8 -0.2077 -0.783108 0.586177 
-0.0874017 0.0330805 0.0128263 10 10 9 -0.281874 -0.83005 0.481211 
-0.0493495 0.0668251 -0.002969 5 5 4 0.00117422 0.973432 -0.228974 
-0.0236498 0.0232121 0.0115028 58 24 14 -0.0716617 -0.915377 0.396168 
-0.0482285 0.0669941 -0.0016544 8 10 7 -0.120438 0.977162 -0.17507 
-0.049357 0.067147 -0.000903307 3 5 3 0.0971957 0.957702 -0.270852 
-0.00117784 0.0580059 -0.0224035 16 16 15 -0.00565824 -0.168616 -0.985666 
-0.0209213 0.0231358 0.0114825 106 32 10 -0.102052 -0.92391 0.368748 
-0.0214501 0.0235188 0.0121683 104 28 5 -0.0481699 -0.871188 0.488581 
0.000583686 0.057751 -0.022311 16 14 14 0.025515 -0.116481 -0.992865 
-0.0631161 0.0675432 -0.000900469 6 7 7 0.413489 0.892265 -0.181355 
-0.060202 0.0673925 -0.000375312 8 8 7 0.0251632 0.994492 -0.101747 
-0.0186244 0.0234176 0.012587 14 12 8 0.242698 -0.866779 0.435651 
-0.0936542 0.0388699 0.013409 9 10 9 -0.509153 -0.46935 0.721439 
-0.020507 0.0241779 0.0133766 103 26 2 -0.114685 -0.834731 0.538583 
-0.0207444 0.0244313 0.0137348 100 25 2 -0.0904513 -0.828419 0.552758 
-0.0621475 0.0674278 0.000334462 5 7 5 0.236167 0.961631 -0.139613 
-0.0186076 0.0242045 0.0139047 13 10 8 0.138498 -0.796735 0.588244 
-0.0611517 0.0675084 0.00130622 7 7 5 0.020458 0.995979 -0.0872155 
0.00444198 0.0541637 -0.0239383 122 40 12 -0.0162077 0.307946 -0.951266 
-0.0594643 0.0675448 0.00131826 8 8 7 0.0450577 0.987804 -0.149037 
-0.0922125 0.0415191 0.0157606 10 13 11 -0.450272 -0.345998 0.823128 
0.00657742 0.054258 -0.023928 121 40 10 -0.00829513 0.231079 -0.9729 
0.00340858 0.0569174 -0.0226867 96 21 5 -0.0649849 0.877988 -0.474252 
0.00356084 0.0577942 -0.0222965 20 14 12 0.0194972 -0.393844 -0.91897 
-0.0890659 0.0396223 0.0171826 12 14 12 -0.465033 -0.347584 0.814205 
-0.0124117 0.0166309 0.0108654 105 25 3 0.0211424 0.00906105 0.999735 
0.00603592 0.0603873 -0.0250028 21 21 20 -0.225682 -0.471055 -0.852746 
-0.016432 0.0212097 0.0107996 95 26 7 0.027289 -0.00909634 0.999586 
-0.0860475 0.0326264 0.0128425 11 11 10 -0.309882 -0.822682 0.476621 
-0.0160696 0.0207519 0.0107962 97 24 6 0.0256768 0.0256768 0.99934 
-0.0628407 0.0670843 0.00668246 3 4 3 0.379969 0.909365 0.16935 
-0.0870948 0.0348744 0.0156949 8 10 8 -0.623471 -0.48903 0.610027 
-0.0133478 0.0211011 0.0107611 96 23 3 0.0215252 0.0276753 0.999385 
-0.0166876 0.0233121 0.0119259 16 14 12 0.144534 -0.913509 0.380278 
-0.0549558 0.0672622 0.00174631 8 9 8 0.0119309 0.994606 0.10304 
-0.052915 0.0672546 0.00239781 12 13 11 0.11376 0.993503 0.00325028 
-0.0552842 0.0672478 0.00192848 8 10 8 0.00326889 0.992653 0.120949 
-0.0542496 0.0672332 0.00230263 12 13 11 -0.10607 0.981448 0.159714 
-0.084169 0.0352241 0.0175842 7 8 7 -0.0180497 -0.623407 0.781689 
-0.061227 0.0376101 -0.0184101 10 12 10 -0.0732218 -0.607311 -0.791083 
-0.00421006 0.0656486 -0.0224371 8 10 8 -0.00115774 0.97829 -0.207235 
-0.0597709 0.0384652 -0.0185927 10 12 10 0.0108207 -0.251281 -0.967854 
-0.000403732 0.0633532 -0.0251139 23 26 23 -0.0559027 0.336716 -0.939945 
-0.0573393 0.0671215 0.00527452 19 20 19 0.0612876 0.940178 0.335126 
-0.0557068 0.0667712 0.00617504 14 17 16 -0.0770582 0.946902 0.312151 
-0.056055 0.0347257 -0.0166877 23 24 24 0.0803685 -0.506181 -0.858674 
-0.0550152 0.034534 -0.0165203 4 3 3 0.0179355 -0.586353 -0.809857 
-0.0550768 0.0664309 0.00728001 4 3 2 -0.0329211 0.915207 0.401638 
-0.0512555 0.0336149 -0.0158747 10 10 8 -0.0121807 -0.515651 -0.856712 
-0.00353496 0.0650708 -0.0237678 11 12 10 0.0288378 0.850029 -0.525947 
-0.0035189 0.0651952 -0.023555 7 8 7 0.0175673 0.863499 -0.504045 
-0.0550772 0.0361229 -0.017492 14 16 14 0.0662604 -0.531493 -0.844467 
-0.081024 0.0397703 0.0193053 1 2 0 0.0381333 -0.755605 0.653916 
-0.0516094 0.0656457 0.00907271 23 23 21 0.0866804 0.854015 0.512977 
-0.0522253 0.0656545 0.00915601 21 21 18 0.0486922 0.850027 0.524484 
0.00340783 0.0651365 -0.0238355 10 12 10 -0.00402864 0.860786 -0.508951 
-0.0505426 0.0657109 0.00880937 5 5 4 0.0311229 0.880912 0.472255 
-0.0524993 0.0363527 -0.0176364 12 14 10 0.00387086 -0.40386 -0.914813 
-0.0934151 0.0440999 0.015922 14 16 14 -0.594336 -0.0853183 0.799678 
-0.0571684 0.0399975 -0.01916 10 11 9 -0.0126529 -0.180592 -0.983477 
-0.0477617 0.0658782 0.00862679 5 7 8 -0.0577189 0.914105 0.401347 
-0.090608 0.04321 0.0172504 14 16 14 -0.524143 -0.168741 0.834746 
0.0102468 0.0597145 -0.0245641 24 23 22 0.123492 -0.757317 -0.641265 
-0.0902259 0.04574 0.0179228 14 17 16 -0.576361 -0.0234967 0.816857 
-0.0715394 0.0462436 0.020109 12 12 11 -0.152769 0.253729 0.955135 
-0.045607 0.0420266 -0.022653 14 15 14 -0.264944 -0.0108881 -0.964202 
-0.0466247 0.0399651 -0.021413 8 8 5 -0.902238 -0.152511 -0.40337 
-0.0466206 0.0404112 -0.0215816 7 8 7 -0.929702 -0.109936 -0.351522 
0.0107768 0.0623096 -0.0256601 12 12 11 0.0790858 0.0657192 -0.994699 
0.00871614 0.0640578 -0.0252404 21 23 21 -0.0667493 0.560978 -0.825135 
-0.0519795 0.0392781 -0.0188489 9 11 9 0.092795 -0.422425 -0.901635 
-0.0651718 0.0450715 0.0222327 8 8 7 -0.600477 -0.0466253 0.798281 
0.0112618 0.0642846 -0.0249797 23 21 20 0.198657 0.608292 -0.76845 
-0.0536537 0.0419392 -0.0196657 11 13 11 -0.0207393 -0.103696 -0.994393 
-0.0910077 0.0486394 0.0171749 12 14 12 -0.521756 0.0749405 0.849797 
-0.0603774 0.0456663 0.0222367 10 11 9 0.0581862 -0.0713604 0.995752 
0.0133287 0.0655669 -0.0230412 122 35 8 -0.0381333 0.965634 -0.257092 
-0.0511773 0.0404312 -0.0192082 8 10 8 0.104087 -0.25058 -0.962484 
-0.0510901 0.0412901 -0.0195338 8 10 8 0.0813449 -0.287935 -0.954189 
0.00468847 0.065746 -0.0217112 14 15 13 -0.0581657 0.991098 -0.119753 
0.00465965 0.0658252 -0.0202178 10 12 10 -0.0212662 0.990558 -0.135432 
-0.0547729 0.0433239 -0.0199066 12 14 12 0.0425658 -0.232287 -0.971715 
-0.0858636 0.046987 0.0194414 16 18 16 -0.25477 -0.0255989 0.966663 
-0.0595537 0.0504581 0.0216903 12 12 10 0.0504925 0.106595 0.99302 
-0.0527792 0.0433782 -0.0199894 14 17 16 0.0289793 -0.175035 -0.984136 
-0.0881862 0.0507442 0.0185749 9 11 9 -0.537698 0.179233 0.823867 
-0.0864973 0.0505474 0.0197737 6 7 8 -0.545692 0.182905 0.817782 
-0.0502894 0.0417291 -0.0196554 10 12 10 -0.0105574 -0.21232 -0.977143 
-0.0665255 0.0586732 0.0171866 6 7 5 -0.00415124 0.709863 0.704328 
-0.0666475 0.0601313 0.015924 3 4 1 -0.0690054 0.528103 0.846372 
-0.0670599 0.0597934 0.0161944 10 10 8 0.229819 0.535217 0.812851 
